2.447766065597534180e-01 2.335791289806365967e-01 1.118525490164756775e-01
-8.356412649154663086e-01 3.096399903297424316e-01 -1.696146130561828613e-01
3.086093068122863770e-02 3.181785345077514648e-01 2.418430522084236145e-02
-3.972294628620147705e-01 7.955298572778701782e-02 3.258557915687561035e-01
1.937589645385742188e-01 2.170815169811248779e-01 -1.736871600151062012e-01
3.161202073097229004e-01 2.094899713993072510e-01 -9.147930145263671875e-02
1.721265912055969238e-01 -1.009009778499603271e-02 1.622985005378723145e-01
-6.108884215354919434e-01 -1.737423241138458252e-02 2.549310624599456787e-01
-4.774643182754516602e-01 -2.360761165618896484e-02 2.580132782459259033e-01
-1.241243362426757812e+00 5.579371005296707153e-02 1.001019496470689774e-02
-9.131595492362976074e-01 3.112471699714660645e-01 1.682174056768417358e-01
-8.361594676971435547e-01 -7.157981395721435547e-02 2.489344216883182526e-02
1.731774806976318359e-01 2.150611877441406250e-01 -1.860167980194091797e-01
-7.923467159271240234e-01 -7.269749045372009277e-02 -5.123288184404373169e-02
-7.509508728981018066e-02 2.567378282546997070e-01 2.314664870500564575e-01
-2.083915472030639648e-02 -2.959761023521423340e-02 -1.957554221153259277e-01
-8.428196310997009277e-01 1.936375647783279419e-01 -2.666954398155212402e-01
-4.147496223449707031e-01 -9.806764125823974609e-02 1.098626181483268738e-01
-5.579988360404968262e-01 3.675273060798645020e-01 6.930700689554214478e-02
-1.010633945465087891e+00 3.024666905403137207e-01 -1.164251416921615601e-01
-8.622975349426269531e-01 2.391811162233352661e-01 -2.403262257575988770e-01
2.645353078842163086e-01 2.474145591259002686e-01 4.614838212728500366e-02
-1.059023618698120117e+00 2.296975851058959961e-01 -1.870629042387008667e-01
-3.380847275257110596e-01 1.365125179290771484e-02 2.916518449783325195e-01
-1.705608665943145752e-01 1.257094144821166992e-01 3.135857284069061279e-01
-2.550289630889892578e-01 -9.719210863113403320e-02 1.067522242665290833e-01
-9.828740358352661133e-01 7.091054320335388184e-02 2.513679563999176025e-01
-1.237366676330566406e+00 1.273716688156127930e-01 -1.118913516402244568e-01
-1.154699325561523438e+00 1.399370580911636353e-01 2.073342949151992798e-01
-1.114644050598144531e+00 1.520359963178634644e-01 -1.902856230735778809e-01
-3.204200565814971924e-01 3.362933397293090820e-01 1.570070385932922363e-01
6.760376691818237305e-02 2.432526350021362305e-01 -1.999097466468811035e-01
-1.643052101135253906e-01 2.556314766407012939e-01 2.530106306076049805e-01
3.955312371253967285e-01 1.765468418598175049e-01 -9.072626009583473206e-03
-1.059655427932739258e+00 1.674692034721374512e-01 -2.120627760887145996e-01
-5.448604822158813477e-01 2.696936726570129395e-01 2.731212675571441650e-01
-6.277589797973632812e-01 -8.502531051635742188e-02 -8.853557705879211426e-02
-1.152385473251342773e+00 1.595845520496368408e-01 -1.716599911451339722e-01
-5.585266351699829102e-01 1.357045769691467285e-02 2.891501188278198242e-01
-3.217785656452178955e-01 1.331265419721603394e-01 3.284645676612854004e-01
-1.248434484004974365e-01 2.639808505773544312e-02 -2.672676146030426025e-01
5.854183435440063477e-02 9.635335952043533325e-02 2.671491801738739014e-01
-3.040857315063476562e-01 1.330797076225280762e-01 -3.132699131965637207e-01
4.018008112907409668e-01 1.529512107372283936e-01 5.653556436300277710e-02
-1.113943576812744141e+00 -3.041148185729980469e-03 3.731343522667884827e-02
-1.882671415805816650e-01 -1.003670543432235718e-01 -5.721380561590194702e-02
-9.305981993675231934e-01 3.442374467849731445e-01 2.192247286438941956e-02
-5.411651730537414551e-01 1.859784126281738281e-03 2.804828882217407227e-01
-4.553278386592864990e-01 -7.068541646003723145e-02 -1.620997637510299683e-01
3.367548584938049316e-01 1.432587057352066040e-01 1.384495049715042114e-01
2.071160674095153809e-01 1.618893444538116455e-01 2.064224630594253540e-01
2.021110057830810547e-01 2.742108702659606934e-01 1.441742852330207825e-02
-7.956757545471191406e-01 2.538363933563232422e-01 2.670215368270874023e-01
-8.681708574295043945e-01 3.485206365585327148e-01 6.986916810274124146e-02
7.408618927001953125e-02 2.597088366746902466e-02 -2.285946607589721680e-01
-9.414337873458862305e-01 4.911690950393676758e-03 -1.691024452447891235e-01
-6.772305965423583984e-01 1.889593303203582764e-01 -2.935062050819396973e-01
-7.796325683593750000e-01 -7.130439579486846924e-02 1.015572175383567810e-01
-1.090896129608154297e-01 -1.922728121280670166e-02 -2.253347039222717285e-01
-1.710686087608337402e-02 2.547018826007843018e-01 2.169227749109268188e-01
2.044394016265869141e-01 5.777746438980102539e-03 1.662098467350006104e-01
5.963271856307983398e-02 -5.500280857086181641e-02 -1.247472316026687622e-01
-1.504672467708587646e-01 2.711444795131683350e-01 2.332613170146942139e-01
-3.174327611923217773e-01 1.637505292892456055e-01 3.240294456481933594e-01
-8.161433935165405273e-01 3.580975532531738281e-01 -1.203034631907939911e-02
8.229184150695800781e-02 -6.461168825626373291e-02 -8.372902125120162964e-02
-5.868802070617675781e-01 3.309177458286285400e-01 -1.716363430023193359e-01
-4.171745777130126953e-01 -1.037266850471496582e-01 8.098332583904266357e-02
-6.955811381340026855e-02 1.389004588127136230e-01 -2.888554632663726807e-01
-3.831237554550170898e-01 -1.683326065540313721e-02 2.664238512516021729e-01
-1.105417251586914062e+00 2.579947113990783691e-01 -1.380742192268371582e-01
-8.103969693183898926e-02 -7.256628572940826416e-02 1.445233374834060669e-01
-9.284861087799072266e-01 9.873709827661514282e-02 2.788617312908172607e-01
6.437921524047851562e-02 2.855454087257385254e-01 -1.329884231090545654e-01
-1.334629654884338379e-01 3.338035941123962402e-01 1.017672792077064514e-01
-1.391659677028656006e-01 -7.890336215496063232e-02 -1.279972344636917114e-01
-1.232645153999328613e+00 1.988838613033294678e-01 -1.077986806631088257e-01
-5.484815835952758789e-01 3.028938770294189453e-01 -2.191739827394485474e-01
-1.242988824844360352e+00 1.195500642061233521e-01 1.440065354108810425e-01
-1.380506157875061035e-01 -9.766831994056701660e-03 2.529139518737792969e-01
-1.185071468353271484e+00 9.265550971031188965e-02 1.721000224351882935e-01
1.127192974090576172e-01 2.354594320058822632e-02 2.210478484630584717e-01
-1.150876283645629883e+00 2.090057581663131714e-01 1.924092173576354980e-01
-8.823586702346801758e-01 -6.346581876277923584e-02 1.431881543248891830e-02
-8.163732290267944336e-01 3.355813324451446533e-01 -1.208129078149795532e-01
-4.305016398429870605e-01 2.536616921424865723e-01 -2.715168595314025879e-01
-5.084260106086730957e-01 3.647911548614501953e-01 8.520346879959106445e-02
-1.223877906799316406e+00 2.623199820518493652e-01 1.043379399925470352e-02
-9.152123928070068359e-01 1.604008376598358154e-01 -2.573267221450805664e-01
-1.065199851989746094e+00 3.750356286764144897e-02 -1.522064507007598877e-01
-6.266568303108215332e-01 -9.788306057453155518e-02 1.233398169279098511e-02
7.475465536117553711e-02 3.052688241004943848e-01 5.354613810777664185e-02
-6.410717964172363281e-02 -9.177255630493164062e-02 6.465202569961547852e-02
-1.188626527786254883e+00 2.689621597528457642e-02 2.396378666162490845e-02
1.219295859336853027e-01 -2.417370676994323730e-02 -1.585383564233779907e-01
-1.073542237281799316e+00 1.382276415824890137e-01 -2.070785611867904663e-01
2.823206782341003418e-01 1.097272634506225586e-01 -1.831154525279998779e-01
-7.749135494232177734e-01 3.621912002563476562e-01 -6.110659800469875336e-03
-6.930015087127685547e-01 2.426990866661071777e-01 -2.662024497985839844e-01
-1.696826517581939697e-01 -1.042162477970123291e-01 -8.026169613003730774e-03
8.945977687835693359e-02 -5.806107819080352783e-02 -1.012109592556953430e-01
-1.382572948932647705e-01 1.114616394042968750e-01 -2.988955080509185791e-01
-1.560818552970886230e-01 -5.229401588439941406e-02 -1.868293434381484985e-01
-1.067072153091430664e+00 3.173398375511169434e-01 2.191898599267005920e-02
-2.213833034038543701e-01 -1.070081740617752075e-01 -3.645307384431362152e-03
-5.676066279411315918e-01 -1.144260168075561523e-02 2.657318413257598877e-01
1.085181236267089844e-01 1.789995133876800537e-01 -2.363902777433395386e-01
1.404628157615661621e-01 -5.791896581649780273e-02 -6.247260421514511108e-02
-1.763516664505004883e-02 2.930589914321899414e-01 -1.569335758686065674e-01
-8.820368647575378418e-01 -5.380693078041076660e-02 1.028469800949096680e-01
-1.954783648252487183e-01 9.695388376712799072e-02 -3.031133115291595459e-01
-1.116699695587158203e+00 3.061686456203460693e-02 1.487849354743957520e-01
-7.333101630210876465e-01 2.887592315673828125e-01 -2.192785441875457764e-01
-1.102745532989501953e+00 2.813187241554260254e-01 1.346617043018341064e-01
-9.515919685363769531e-01 7.313123345375061035e-02 -2.282069623470306396e-01
4.615485668182373047e-02 2.262688279151916504e-01 2.255992293357849121e-01
-1.059170484542846680e+00 2.761119306087493896e-01 -1.381203383207321167e-01
-1.540133059024810791e-01 3.489755988121032715e-01 5.739821121096611023e-03
-3.900732994079589844e-01 2.708899974822998047e-01 -2.551620006561279297e-01
-1.214847803115844727e+00 2.633625268936157227e-01 5.595373362302780151e-02
-8.047863841056823730e-02 3.192802667617797852e-01 1.232370510697364807e-01
4.270251393318176270e-01 1.098607778549194336e-01 -4.229560494422912598e-02
-7.449564933776855469e-01 -5.758106708526611328e-02 1.619198918342590332e-01
-3.787548243999481201e-01 3.252903521060943604e-01 -1.799177825450897217e-01
-2.766755819320678711e-01 -5.638417601585388184e-02 -1.914254426956176758e-01
-1.059788465499877930e-01 2.401893585920333862e-02 -2.631818652153015137e-01
9.408509731292724609e-02 9.998018294572830200e-02 2.574649751186370850e-01
-1.140486836433410645e+00 2.714063525199890137e-01 1.267919689416885376e-01
-4.299054443836212158e-01 1.751512885093688965e-01 -3.106649816036224365e-01
-1.067688465118408203e+00 1.116409227252006531e-01 2.396991103887557983e-01
-6.480281352996826172e-01 -9.583666920661926270e-02 2.458080835640430450e-02
-7.422057390213012695e-01 9.106357395648956299e-02 3.114283084869384766e-01
1.939218640327453613e-01 1.589069366455078125e-01 -2.143386304378509521e-01
-1.194502234458923340e+00 2.567422389984130859e-01 1.074197739362716675e-01
-7.277480363845825195e-01 -8.517555892467498779e-02 5.775217711925506592e-02
-5.857330560684204102e-01 5.093691498041152954e-02 3.111875653266906738e-01
-3.696488142013549805e-01 -1.056379377841949463e-01 -4.898262768983840942e-02
-6.576398015022277832e-02 -8.529882133007049561e-02 9.861285239458084106e-02
-3.574448227882385254e-01 -1.497644186019897461e-02 2.677326202392578125e-01
-2.671658396720886230e-01 -8.848205208778381348e-03 2.687625586986541748e-01
2.814407348632812500e-01 -1.594862341880798340e-02 -6.435751914978027344e-02
-4.057501256465911865e-01 3.163378834724426270e-01 -1.979205459356307983e-01
-1.104627251625061035e+00 8.317305892705917358e-02 -1.733726859092712402e-01
-5.073190331459045410e-01 -1.044522523880004883e-01 5.051837116479873657e-02
-4.026636183261871338e-01 -6.792126595973968506e-02 1.938019990921020508e-01
-1.246028423309326172e+00 9.888739883899688721e-02 1.264857798814773560e-01
-1.153531670570373535e-01 1.118168532848358154e-01 3.053001463413238525e-01
-6.311683654785156250e-01 -9.191238880157470703e-02 8.365536481142044067e-02
-1.896088123321533203e-01 1.591111570596694946e-01 -3.019070625305175781e-01
-1.328918039798736572e-01 9.309321641921997070e-02 -2.957541942596435547e-01
-1.310110092163085938e-01 3.425720930099487305e-01 -5.165321379899978638e-02
4.324157834053039551e-01 1.068995743989944458e-01 1.403632760047912598e-02
1.341931819915771484e-01 -3.861992061138153076e-02 1.327994167804718018e-01
-1.300188899040222168e+00 2.037962377071380615e-01 1.726074144244194031e-03
3.022114038467407227e-01 1.156154274940490723e-02 -1.075386255979537964e-01
-4.521033167839050293e-01 -8.598476648330688477e-02 -1.243407428264617920e-01
-1.043051958084106445e+00 3.188682794570922852e-01 6.652265042066574097e-02
-1.142342686653137207e+00 2.297130227088928223e-02 1.096333265304565430e-01
1.541268825531005859e-02 3.135185837745666504e-01 7.915288209915161133e-02
-2.966080307960510254e-01 3.615092039108276367e-01 4.121759533882141113e-02
-7.567686438560485840e-01 -2.741120755672454834e-02 -1.849608719348907471e-01
-7.317358255386352539e-01 2.703027129173278809e-01 -2.389790862798690796e-01
-4.424103200435638428e-01 -1.068519651889801025e-01 5.123140662908554077e-02
-8.033730983734130859e-01 -1.778329908847808838e-02 2.184617817401885986e-01
-7.985193133354187012e-01 -7.760889828205108643e-02 1.640823669731616974e-02
-1.023861408233642578e+00 3.059956133365631104e-01 -1.004783585667610168e-01
-2.914039492607116699e-01 1.006837189197540283e-01 -3.103353381156921387e-01
-1.052513957023620605e+00 1.001285761594772339e-01 2.414925098419189453e-01
-6.079380512237548828e-01 -9.945167601108551025e-02 1.029381062835454941e-02
3.465484380722045898e-01 8.892282843589782715e-03 -4.276943206787109375e-02
-1.068485856056213379e+00 -1.415020227432250977e-02 7.161534577608108521e-02
-5.125945806503295898e-01 -6.281603872776031494e-02 1.978116482496261597e-01
-8.679411411285400391e-01 8.424550294876098633e-02 -2.565671801567077637e-01
-8.159438371658325195e-01 1.985420286655426025e-01 -2.702082991600036621e-01
-7.734739184379577637e-01 -6.606803834438323975e-02 1.257127821445465088e-01
-2.793568372726440430e-01 2.564684152603149414e-01 -2.608563601970672607e-01
-5.926738381385803223e-01 -5.564886331558227539e-02 2.015763968229293823e-01
-4.469835460186004639e-01 -9.058818221092224121e-03 2.741263806819915771e-01
-6.711470484733581543e-01 -3.816048800945281982e-02 -1.888706088066101074e-01
3.187671303749084473e-01 1.016531735658645630e-01 1.589809954166412354e-01
-1.587610542774200439e-01 3.364368677139282227e-01 1.049217805266380310e-01
-9.160436391830444336e-01 5.881143361330032349e-02 2.636397182941436768e-01
-2.824442982673645020e-01 3.486185669898986816e-01 1.096725016832351685e-01
-3.537492752075195312e-01 3.467004895210266113e-01 -1.256099492311477661e-01
6.213486194610595703e-04 4.197448492050170898e-02 2.641698122024536133e-01
-1.065192461013793945e+00 1.982833445072174072e-02 -1.273987442255020142e-01
-3.689143657684326172e-01 9.811039268970489502e-02 3.289749324321746826e-01
-1.077073574066162109e+00 7.178015261888504028e-02 2.163348197937011719e-01
-1.191935539245605469e+00 3.554467856884002686e-02 -3.520666062831878662e-02
1.233211755752563477e-01 2.546503245830535889e-01 -1.602891385555267334e-01
3.282333016395568848e-01 1.611220240592956543e-01 1.346896141767501831e-01
-1.272323846817016602e+00 1.320776343345642090e-01 1.204699575901031494e-01
-7.461886405944824219e-01 4.983275383710861206e-02 -2.644918560981750488e-01
-2.354679703712463379e-01 3.319062590599060059e-01 1.479067951440811157e-01
3.727894425392150879e-01 7.333766669034957886e-02 -1.110470741987228394e-01
3.200632333755493164e-01 2.366341650485992432e-02 -1.104836612939834595e-01
-5.420984029769897461e-01 1.060629487037658691e-01 -3.094179034233093262e-01
-4.348439574241638184e-01 3.689748048782348633e-01 -3.142459690570831299e-02
-7.425791025161743164e-01 -8.358794450759887695e-02 -2.232499979436397552e-02
-3.757559359073638916e-01 -3.338764607906341553e-02 -2.266756892204284668e-01
-3.814874887466430664e-01 -4.538507759571075439e-02 -2.102249413728713989e-01
-4.864465892314910889e-01 3.715826869010925293e-01 1.720031723380088806e-02
9.137791395187377930e-02 2.408187687397003174e-01 -1.936065852642059326e-01
-1.030294775962829590e+00 1.153918355703353882e-02 -1.352088451385498047e-01
-1.304944753646850586e+00 1.899218559265136719e-01 5.626735836267471313e-02
-9.891250133514404297e-01 -4.011578857898712158e-02 4.069159738719463348e-03
-6.352180242538452148e-02 3.247354030609130859e-01 9.458480775356292725e-02
-8.381828069686889648e-01 2.901276946067810059e-01 -1.974766552448272705e-01
-8.472377061843872070e-01 -3.318412601947784424e-02 -1.444061994552612305e-01
-8.481793403625488281e-01 -1.230543851852416992e-02 2.132528424263000488e-01
-5.015376210212707520e-02 4.665420949459075928e-02 -2.679766118526458740e-01
-5.877901315689086914e-01 3.337312340736389160e-01 1.818219274282455444e-01
-3.232856988906860352e-01 -9.613108634948730469e-02 -9.679394215345382690e-02
-8.248697519302368164e-01 3.402403891086578369e-01 -1.044147610664367676e-01
-3.729645609855651855e-01 -8.375838398933410645e-02 -1.357416212558746338e-01
-1.192355632781982422e+00 3.277700394392013550e-02 6.386596709489822388e-02
-8.878850340843200684e-01 3.467420339584350586e-01 6.481294333934783936e-02
1.588752269744873047e-01 -5.006864666938781738e-03 1.753147989511489868e-01
-2.490314692258834839e-01 1.858152300119400024e-01 -3.002602756023406982e-01
-2.896286249160766602e-01 9.245014190673828125e-02 3.234449326992034912e-01
-9.330891370773315430e-01 3.693745285272598267e-02 2.425661236047744751e-01
2.143529057502746582e-01 2.118469774723052979e-01 1.653573662042617798e-01
3.229773640632629395e-01 1.714238375425338745e-01 -1.355345547199249268e-01
-8.050468564033508301e-01 -5.139297246932983398e-02 -1.211617439985275269e-01
-1.063981294631958008e+00 -1.993235945701599121e-02 1.752543076872825623e-02
-9.621224403381347656e-01 -9.187012910842895508e-04 -1.511027663946151733e-01
-3.055368065834045410e-01 3.627331256866455078e-01 -2.704241313040256500e-02
-1.104836344718933105e+00 1.806744188070297241e-02 -9.478173404932022095e-02
7.613909244537353516e-02 4.674350470304489136e-02 -2.411088347434997559e-01
-6.024649739265441895e-01 1.238530129194259644e-01 3.298907876014709473e-01
-9.538481831550598145e-01 -1.574200391769409180e-02 1.651407033205032349e-01
-1.191908359527587891e+00 1.988919973373413086e-01 1.748596280813217163e-01
-1.312554240226745605e+00 1.431617140769958496e-01 5.666394531726837158e-02
-9.412845373153686523e-01 -3.472813963890075684e-02 -8.950090408325195312e-02
-6.726324558258056641e-02 3.103474378585815430e-01 1.413082480430603027e-01
5.540758371353149414e-03 -8.713240921497344971e-02 -1.708577759563922882e-02
-9.556846618652343750e-01 3.377457261085510254e-01 5.568601936101913452e-02
-7.201172113418579102e-01 -2.818156778812408447e-02 2.235356420278549194e-01
-9.798964262008666992e-01 1.195870712399482727e-01 2.703713774681091309e-01
2.006744146347045898e-01 2.316467165946960449e-01 1.483623683452606201e-01
-1.110609531402587891e+00 3.383847326040267944e-02 -1.188786923885345459e-01
-7.878281474113464355e-01 1.785381734371185303e-01 3.069756031036376953e-01
-5.017048716545104980e-01 -1.055611968040466309e-01 -1.227064616978168488e-02
-1.771275401115417480e-01 1.882046312093734741e-01 3.008437752723693848e-01
-1.034827589988708496e+00 1.396864801645278931e-01 2.560471296310424805e-01
-2.671915292739868164e-01 3.605337142944335938e-01 1.829889044165611267e-02
-8.017690777778625488e-01 -6.060242652893066406e-03 2.343797832727432251e-01
-7.005229592323303223e-02 4.794784635305404663e-02 2.817817330360412598e-01
-9.889957308769226074e-01 2.148344963788986206e-01 2.518479228019714355e-01
-5.338734388351440430e-01 -8.738960325717926025e-02 -1.069930121302604675e-01
-2.740801572799682617e-01 -7.108266651630401611e-02 1.828630566596984863e-01
2.105795741081237793e-01 2.269376218318939209e-01 -1.519830226898193359e-01
1.214768290519714355e-01 2.522692084312438965e-01 1.634440571069717407e-01
-6.157825589179992676e-01 1.574120670557022095e-02 2.862102389335632324e-01
-1.030266642570495605e+00 4.624716192483901978e-02 -1.788992136716842651e-01
6.566047668457031250e-03 1.464862376451492310e-01 2.783054113388061523e-01
-1.003934383392333984e+00 2.671598792076110840e-01 -1.744635403156280518e-01
-3.326791524887084961e-02 2.925972342491149902e-01 1.657087057828903198e-01
-6.601531505584716797e-01 -9.454834461212158203e-02 1.761327497661113739e-03
-3.787829875946044922e-01 3.414698243141174316e-01 1.537802368402481079e-01
-6.960283517837524414e-01 -5.080598592758178711e-02 1.907768249511718750e-01
-1.123874187469482422e+00 9.446315467357635498e-03 -5.074224621057510376e-02
-5.755305290222167969e-02 2.312684357166290283e-01 2.514725923538208008e-01
-2.960161566734313965e-01 -3.575330972671508789e-02 2.414339929819107056e-01
-8.812692761421203613e-02 1.995179951190948486e-01 2.798603773117065430e-01
-9.133870601654052734e-01 -3.481763601303100586e-02 1.437576115131378174e-01
-9.359570741653442383e-01 2.178565412759780884e-02 2.270486354827880859e-01
3.141702413558959961e-01 7.183570414781570435e-02 -1.562987715005874634e-01
-1.457997560501098633e-01 3.444488346576690674e-02 -2.747924923896789551e-01
-1.037375211715698242e+00 1.281669586896896362e-01 -2.194722592830657959e-01
-1.299980521202087402e+00 1.730344593524932861e-01 -4.320286959409713745e-02
-3.097931742668151855e-01 -6.735712289810180664e-02 1.928773820400238037e-01
-5.925295352935791016e-01 1.056209206581115723e-03 2.758163213729858398e-01
-2.830181121826171875e-01 -2.721196413040161133e-02 -2.327748239040374756e-01
4.354953765869140625e-03 4.629752039909362793e-02 -2.576007544994354248e-01
2.398160696029663086e-01 9.024673700332641602e-02 2.014772891998291016e-01
-1.714724600315093994e-01 -1.441052556037902832e-02 2.531747221946716309e-01
-7.023092508316040039e-01 3.415964543819427490e-01 -1.338282078504562378e-01
2.145357728004455566e-01 2.686396986246109009e-02 -1.796987801790237427e-01
-5.852996110916137695e-01 3.713170588016510010e-01 -1.086709275841712952e-02
1.866025924682617188e-01 2.284828722476959229e-01 1.613766700029373169e-01
2.898260951042175293e-01 -1.315502822399139404e-02 6.392642110586166382e-02
-8.748164176940917969e-01 3.319862186908721924e-01 1.331219971179962158e-01
6.726241111755371094e-02 3.031664490699768066e-01 7.419654726982116699e-02
-3.381185531616210938e-01 1.638286709785461426e-01 -3.114588260650634766e-01
-8.586420416831970215e-01 1.070090532302856445e-01 2.964891791343688965e-01
-9.467990994453430176e-01 -4.971508681774139404e-02 3.990698605775833130e-02
-1.143348336219787598e+00 1.242128014564514160e-02 7.145697623491287231e-02
-1.131260871887207031e+00 2.236285358667373657e-01 1.923092901706695557e-01
-3.790757954120635986e-01 -1.018947809934616089e-01 9.389118850231170654e-02
-1.157111883163452148e+00 2.246598899364471436e-02 8.889610320329666138e-02
-1.632794141769409180e-01 -7.932326197624206543e-02 1.479387730360031128e-01
-1.111616134643554688e+00 2.996208667755126953e-01 -4.083270579576492310e-02
-7.804111242294311523e-01 3.211000561714172363e-01 -1.627075523138046265e-01
-9.557403922080993652e-01 1.727358549833297729e-01 2.760701775550842285e-01
-8.431211709976196289e-01 -5.348370969295501709e-02 1.302118748426437378e-01
-9.378785490989685059e-01 3.258135318756103516e-01 1.228165179491043091e-01
-1.288419842720031738e+00 2.184197306632995605e-01 1.298445928841829300e-02
-5.425167083740234375e-01 -6.781832873821258545e-02 1.843344569206237793e-01
-8.517456054687500000e-01 2.404303103685379028e-02 -2.212815731763839722e-01
-1.055024743080139160e+00 1.668370068073272705e-01 2.478606998920440674e-01
-5.962508916854858398e-01 2.287383824586868286e-01 3.031079769134521484e-01
1.061081886291503906e-03 -5.739912390708923340e-02 1.529617607593536377e-01
-3.674677610397338867e-01 2.736253142356872559e-01 -2.513247430324554443e-01
-3.444926142692565918e-01 -3.774806857109069824e-02 2.412352859973907471e-01
3.489193916320800781e-01 6.635831296443939209e-02 1.259683072566986084e-01
-1.256931066513061523e+00 1.669819504022598267e-01 -9.915775060653686523e-02
-1.007856607437133789e+00 6.880742311477661133e-02 2.417377233505249023e-01
-2.743350863456726074e-01 -1.037015765905380249e-01 7.711712270975112915e-02
-7.205661535263061523e-01 1.752524971961975098e-01 -2.916259765625000000e-01
-7.727351188659667969e-01 -8.087724447250366211e-02 -2.998089417815208435e-03
-6.690932512283325195e-01 4.763858765363693237e-02 3.021205663681030273e-01
1.619384288787841797e-01 2.044914960861206055e-01 1.993709653615951538e-01
-5.071128010749816895e-01 1.208427622914314270e-01 3.331446051597595215e-01
4.134644865989685059e-01 1.557542681694030762e-01 -2.066618017852306366e-02
-1.291364431381225586e+00 1.068605110049247742e-01 6.818365305662155151e-02
-9.733745455741882324e-01 -6.947249174118041992e-03 -1.349922418594360352e-01
-1.126842975616455078e+00 1.114112883806228638e-02 9.322162717580795288e-02
-1.129194736480712891e+00 1.925422400236129761e-01 -1.760937571525573730e-01
2.105156779289245605e-01 9.107746183872222900e-02 -2.139828205108642578e-01
-2.306858897209167480e-01 3.212190270423889160e-01 -1.656414866447448730e-01
1.684386730194091797e-01 1.678497344255447388e-01 2.203505933284759521e-01
1.787115335464477539e-01 2.560330629348754883e-01 -1.235442012548446655e-01
-3.003697991371154785e-01 -7.969541847705841064e-02 1.656626313924789429e-01
1.499259471893310547e-01 2.798086106777191162e-01 -8.324619382619857788e-02
-9.740624427795410156e-01 1.870899945497512817e-01 -2.365649193525314331e-01
-5.800999402999877930e-01 4.550275951623916626e-02 -2.844616770744323730e-01
-4.211476445198059082e-02 -9.304460883140563965e-02 -1.543922536075115204e-02
-1.085759639739990234e+00 2.156617641448974609e-01 2.183058559894561768e-01
-4.356116056442260742e-01 3.204321265220642090e-01 2.045701891183853149e-01
2.723068594932556152e-01 1.725872009992599487e-01 -1.692656725645065308e-01
-9.609976410865783691e-01 3.161967396736145020e-01 -1.108670234680175781e-01
-2.279446721076965332e-01 3.106106221675872803e-01 -1.856783926486968994e-01
-4.937703907489776611e-01 -9.700912237167358398e-02 1.041612550616264343e-01
-3.495900034904479980e-01 3.621380925178527832e-01 -5.855681002140045166e-02
-4.920719861984252930e-01 3.592557609081268311e-01 1.097929254174232483e-01
-2.525271773338317871e-01 -5.851110816001892090e-02 2.045157253742218018e-01
-1.109062731266021729e-01 5.204386264085769653e-02 -2.797161936759948730e-01
-8.006364107131958008e-02 3.021565377712249756e-01 -1.623833179473876953e-01
-4.756085574626922607e-01 -5.155213177204132080e-02 -1.960561275482177734e-01
2.822462320327758789e-01 1.951936930418014526e-01 -1.433643996715545654e-01
-1.163446664810180664e+00 1.628588140010833740e-01 2.026161700487136841e-01
-1.066212058067321777e+00 3.135362267494201660e-01 6.495558470487594604e-02
-6.359032392501831055e-01 -8.568564057350158691e-02 1.123953163623809814e-01
-9.573093056678771973e-02 -9.534923732280731201e-02 -4.685508459806442261e-02
-3.259572982788085938e-01 8.536426723003387451e-02 -3.084024786949157715e-01
-3.705507516860961914e-01 6.785411387681961060e-02 -3.036854565143585205e-01
-2.850376665592193604e-01 3.565959334373474121e-01 7.297144830226898193e-02
-6.575965285301208496e-01 2.740409672260284424e-01 2.641700208187103271e-01
6.590527296066284180e-02 1.901822537183761597e-01 -2.436011135578155518e-01
-5.731676816940307617e-01 3.402111530303955078e-01 -1.525285392999649048e-01
-1.149734735488891602e+00 2.402193844318389893e-01 1.668389886617660522e-01
-6.590005755424499512e-01 1.495144218206405640e-01 -3.022801280021667480e-01
-9.519237279891967773e-02 -1.468335092067718506e-02 2.406643331050872803e-01
-1.275252401828765869e-01 3.080695867538452148e-01 1.697143614292144775e-01
2.099895477294921875e-01 5.032209306955337524e-02 -1.986370682716369629e-01
-4.505050182342529297e-02 2.768138945102691650e-01 -1.943838894367218018e-01
-6.762993335723876953e-01 2.800123095512390137e-01 2.565099298954010010e-01
-5.570576190948486328e-01 3.525168299674987793e-01 -1.203782111406326294e-01
-5.426117181777954102e-01 1.116510629653930664e-01 3.315352797508239746e-01
-1.012658596038818359e+00 -1.527044177055358887e-02 1.291999667882919312e-01
-5.918833017349243164e-01 1.341385692358016968e-01 -3.087157309055328369e-01
-2.223062813282012939e-01 -5.956648290157318115e-02 1.993905752897262573e-01
3.857550024986267090e-02 -3.404806554317474365e-02 1.824695169925689697e-01
-2.631735503673553467e-01 -2.432049810886383057e-02 -2.351705878973007202e-01
-5.265460014343261719e-01 3.720493018627166748e-01 1.250103767961263657e-02
-5.388501882553100586e-01 3.718794882297515869e-01 -7.138352841138839722e-03
4.298526048660278320e-02 3.029569387435913086e-01 -9.813681244850158691e-02
-4.091345667839050293e-01 -4.052919149398803711e-02 2.384659647941589355e-01
1.745769977569580078e-01 1.293747872114181519e-01 -2.289050519466400146e-01
-7.893439531326293945e-01 5.270151793956756592e-02 2.878384590148925781e-01
-4.951483905315399170e-01 -9.199216961860656738e-02 1.244579181075096130e-01
3.030959367752075195e-01 8.984580636024475098e-03 1.028705760836601257e-01
-1.025549173355102539e+00 2.616318464279174805e-01 -1.720728874206542969e-01
-3.333315253257751465e-02 1.418788135051727295e-01 -2.821528315544128418e-01
-8.386198282241821289e-01 3.232784867286682129e-01 1.664039641618728638e-01
-2.382168173789978027e-02 -8.995597064495086670e-02 -2.869981713593006134e-02
-6.991435289382934570e-01 -8.494231104850769043e-02 -5.301734805107116699e-02
-2.924840450286865234e-01 -6.178206205368041992e-02 2.021317481994628906e-01
-9.498212337493896484e-01 6.873907148838043213e-02 2.601647675037384033e-01
-8.104218840599060059e-01 -6.513719260692596436e-02 1.080255880951881409e-01
7.850015163421630859e-02 1.386869996786117554e-01 -2.574518620967864990e-01
-5.717011690139770508e-01 2.244183421134948730e-01 3.064829409122467041e-01
3.981440663337707520e-01 5.352685600519180298e-02 5.461423844099044800e-02
-5.595471858978271484e-01 -8.766773343086242676e-02 1.275977343320846558e-01
-5.666399002075195312e-01 -9.477223455905914307e-02 9.564045071601867676e-02
-1.978745013475418091e-01 1.726339757442474365e-02 2.831793725490570068e-01
-5.804162621498107910e-01 -7.685661315917968750e-02 -1.286580115556716919e-01
-3.123630881309509277e-01 -1.052656173706054688e-01 -5.096737295389175415e-02
3.855121731758117676e-01 2.882446348667144775e-02 3.380713518708944321e-03
2.304447293281555176e-01 -2.033346891403198242e-02 -1.043656840920448303e-01
-2.630031704902648926e-01 3.440555930137634277e-01 -1.133307889103889465e-01
-1.169498682022094727e+00 3.201257437467575073e-02 1.007474735379219055e-01
2.626773118972778320e-01 3.025867044925689697e-02 1.593693941831588745e-01
2.586552500724792480e-01 1.440373808145523071e-01 1.881523579359054565e-01
-4.716550409793853760e-01 -1.014196127653121948e-01 -6.033832579851150513e-02
-1.198982894420623779e-01 3.191090375185012817e-02 2.819138765335083008e-01
-5.877702832221984863e-01 7.580260932445526123e-02 3.214565217494964600e-01
-8.470917344093322754e-01 -2.850028872489929199e-02 1.874533295631408691e-01
3.911224007606506348e-01 1.167856380343437195e-01 -1.014269441366195679e-01
3.334691524505615234e-01 5.822104960680007935e-02 1.334582418203353882e-01
-5.859603881835937500e-01 2.794310450553894043e-01 -2.449280619621276855e-01
-3.571470081806182861e-01 3.206020593643188477e-01 1.965261548757553101e-01
-5.360175967216491699e-01 2.048499882221221924e-01 -2.987663745880126953e-01
4.249230027198791504e-02 3.115147948265075684e-01 -6.103011965751647949e-02
-3.598061203956604004e-01 3.535034060478210449e-01 -1.036425754427909851e-01
1.306347846984863281e-01 2.348628789186477661e-01 1.827770769596099854e-01
-1.689656972885131836e-01 6.269741058349609375e-02 3.032550513744354248e-01
-1.246101021766662598e+00 2.142383158206939697e-01 1.202944666147232056e-01
-5.691082477569580078e-01 -3.859445452690124512e-03 -2.477798163890838623e-01
-3.580166101455688477e-01 1.312748044729232788e-01 -3.151393532752990723e-01
-5.350643396377563477e-01 2.227116972208023071e-01 -2.904468178749084473e-01
-2.851322889328002930e-01 1.386506855487823486e-01 -3.120947480201721191e-01
-1.034780263900756836e+00 1.682315319776535034e-01 2.543921768665313721e-01
-2.362977564334869385e-01 2.739300727844238281e-01 2.464844286441802979e-01
-1.204363346099853516e+00 3.858211636543273926e-02 -2.033803053200244904e-02
5.747109651565551758e-03 3.234198093414306641e-01 -2.071670442819595337e-02
-7.960734367370605469e-01 3.325783610343933105e-01 -1.344820857048034668e-01
-2.775639295578002930e-03 3.124479949474334717e-01 9.845090657472610474e-02
-5.921676754951477051e-01 1.708168387413024902e-01 3.265307247638702393e-01
-2.540976703166961670e-01 3.450192213058471680e-01 1.134460642933845520e-01
-1.094683408737182617e+00 -1.008479297161102295e-02 2.738943696022033691e-02
-7.567688226699829102e-01 2.879526615142822266e-01 2.384982705116271973e-01
-6.110755801200866699e-01 -9.849573671817779541e-02 -1.020939648151397705e-02
-5.127657055854797363e-01 -1.000840067863464355e-01 -5.674842000007629395e-02
-6.176066994667053223e-01 1.009446159005165100e-01 -3.024813830852508545e-01
-9.996531009674072266e-01 2.453106045722961426e-01 -1.974224448204040527e-01
-8.124904632568359375e-01 2.139894962310791016e-01 2.903579473495483398e-01
9.071707725524902344e-02 2.274334281682968140e-01 -2.081374526023864746e-01
1.618462800979614258e-01 9.091527014970779419e-02 2.339315116405487061e-01
-1.963538974523544312e-01 -1.040541529655456543e-01 -3.182786703109741211e-02
1.242765784263610840e-02 -8.612981438636779785e-02 2.981987595558166504e-02
3.818201422691345215e-01 3.828258067369461060e-02 5.689968913793563843e-02
-1.081842660903930664e+00 4.101447761058807373e-02 1.855749785900115967e-01
-7.620051503181457520e-01 -4.377315938472747803e-02 -1.547596901655197144e-01
-5.383287072181701660e-01 2.363364696502685547e-01 2.998744547367095947e-01
-1.274741291999816895e+00 1.748023182153701782e-01 1.184846982359886169e-01
5.702883005142211914e-02 1.562914848327636719e-01 2.626085877418518066e-01
-7.388834953308105469e-01 3.525741398334503174e-01 -9.113339334726333618e-02
-2.288110405206680298e-01 7.629643380641937256e-02 -3.009018898010253906e-01
2.402059435844421387e-01 -2.525371313095092773e-02 8.636478334665298462e-02
-8.435965776443481445e-01 -6.922450661659240723e-02 -1.275186426937580109e-02
-5.899882912635803223e-01 -8.534784615039825439e-02 1.282749623060226440e-01
-3.613111972808837891e-01 7.489915192127227783e-02 3.233408629894256592e-01
-9.803285598754882812e-01 2.808240354061126709e-01 -1.665571630001068115e-01
-7.639832496643066406e-01 2.396289557218551636e-01 -2.585047185420989990e-01
-6.642390489578247070e-01 2.415725588798522949e-02 2.874656915664672852e-01
-1.198928594589233398e+00 1.333368122577667236e-01 1.813596040010452271e-01
-4.666030406951904297e-03 2.583935856819152832e-02 2.558816373348236084e-01
-5.856115221977233887e-01 1.823287904262542725e-01 -3.035027980804443359e-01
9.637808799743652344e-02 6.611981987953186035e-02 -2.445426583290100098e-01
-6.309720277786254883e-01 3.283402919769287109e-01 1.903244107961654663e-01
-9.726995229721069336e-01 -4.441404342651367188e-02 2.042107097804546356e-02
2.935200929641723633e-02 5.659488588571548462e-02 2.640837132930755615e-01
-6.438077092170715332e-01 -5.993998050689697266e-02 1.839755475521087646e-01
3.930327296257019043e-02 -7.667928934097290039e-03 -2.075851857662200928e-01
-1.408773660659790039e-02 3.260636925697326660e-01 -3.517764061689376831e-02
-3.514841794967651367e-01 3.526149392127990723e-01 1.140557229518890381e-01
-9.334858655929565430e-01 -2.795602381229400635e-02 -1.130938678979873657e-01
-3.353396058082580566e-01 -7.500879466533660889e-02 1.783098131418228149e-01
-4.755535423755645752e-01 6.909486651420593262e-02 3.231312334537506104e-01
3.044956922531127930e-01 -1.246735453605651855e-03 7.974389195442199707e-02
-7.180856466293334961e-01 3.344522714614868164e-01 -1.480886936187744141e-01
-6.512951850891113281e-01 3.202208876609802246e-01 2.036928534507751465e-01
-9.968050122261047363e-01 4.989713430404663086e-03 1.802800893783569336e-01
-4.117483496665954590e-01 2.581202685832977295e-01 -2.674821019172668457e-01
-9.662689566612243652e-01 -4.091461002826690674e-02 -4.020880907773971558e-02
-4.999090433120727539e-01 3.175207376480102539e-01 -1.985613107681274414e-01
4.053113460540771484e-01 1.470757871866226196e-01 -6.377454847097396851e-02
-8.026038408279418945e-01 2.918754220008850098e-01 -2.031015455722808838e-01
2.160584926605224609e-02 1.835628896951675415e-01 2.619339227676391602e-01
-9.119679927825927734e-01 5.045364797115325928e-02 -2.258054465055465698e-01
3.755719065666198730e-01 1.265744715929031372e-01 1.107241436839103699e-01
8.194917440414428711e-02 2.591826319694519043e-01 1.725898385047912598e-01
-1.219689607620239258e+00 9.346999228000640869e-02 1.465307772159576416e-01
-4.679855108261108398e-01 7.058925926685333252e-03 -2.657080888748168945e-01
-6.893812417984008789e-01 1.160275340080261230e-01 -2.972527146339416504e-01
-7.416000962257385254e-02 2.721057534217834473e-01 2.125603407621383667e-01
-5.290731787681579590e-02 1.763048022985458374e-02 2.607120871543884277e-01
-6.684730052947998047e-01 3.653228282928466797e-01 -4.865057021379470825e-02
-1.627705097198486328e-01 3.461056351661682129e-01 5.904436111450195312e-02
1.342157721519470215e-01 -6.599147617816925049e-02 8.781641721725463867e-03
-1.225334405899047852e+00 1.590725630521774292e-01 -1.264307647943496704e-01
-1.489991843700408936e-01 -2.705404162406921387e-02 -2.217350602149963379e-01
-1.865904331207275391e-01 -7.737256586551666260e-02 1.574248224496841431e-01
-1.203319430351257324e-01 -7.342889904975891113e-02 -1.381416618824005127e-01
-1.153660535812377930e+00 1.274830102920532227e-02 -4.155921749770641327e-03
-1.015788614749908447e-01 3.306516408920288086e-01 9.559107571840286255e-02
2.057955861091613770e-01 -4.094278812408447266e-02 -6.530269235372543335e-02
-5.391408205032348633e-01 -4.092434048652648926e-02 -2.061989605426788330e-01
8.610850572586059570e-02 2.119448184967041016e-01 -2.231915593147277832e-01
4.270258545875549316e-02 7.916661351919174194e-02 -2.622866928577423096e-01
-3.886171281337738037e-01 3.551375865936279297e-01 -1.027189865708351135e-01
1.333944201469421387e-01 -6.284222006797790527e-02 -4.318334162235260010e-02
6.987023353576660156e-02 -6.991428136825561523e-02 8.053996413946151733e-02
-2.235381156206130981e-01 -4.683601856231689453e-02 -2.029660344123840332e-01
-2.518446147441864014e-01 -6.968398392200469971e-02 -1.651166230440139771e-01
-5.747404098510742188e-01 3.699021041393280029e-01 4.833541810512542725e-02
-9.063340425491333008e-01 -5.124281346797943115e-02 9.271456301212310791e-02
-3.788481056690216064e-01 3.359181880950927734e-01 -1.575205922126770020e-01
-4.632909893989562988e-01 2.034407258033752441e-01 -3.013022541999816895e-01
-6.592468619346618652e-01 -6.190547347068786621e-02 -1.465876847505569458e-01
-6.635587215423583984e-01 3.088222742080688477e-01 -2.022370696067810059e-01
-7.524778842926025391e-01 3.461121916770935059e-01 1.297867298126220703e-01
1.148359179496765137e-01 2.996851503849029541e-01 -1.063010096549987793e-02
3.899115324020385742e-02 -7.072708010673522949e-02 -8.852117508649826050e-02
-1.109831809997558594e+00 3.058621883392333984e-01 2.052255347371101379e-02
-1.066200256347656250e+00 2.964608073234558105e-01 1.259135454893112183e-01
3.961159586906433105e-01 8.006270229816436768e-02 8.462683856487274170e-02
-2.860919833183288574e-01 1.197464764118194580e-01 -3.121556043624877930e-01
4.007509350776672363e-01 1.631360799074172974e-01 4.021825641393661499e-02
-6.785535216331481934e-01 2.987370789051055908e-01 -2.144174724817276001e-01
-2.476112097501754761e-01 -1.041775345802307129e-01 6.814783811569213867e-02
-9.955092668533325195e-01 -3.826454281806945801e-02 3.925223648548126221e-02
1.691416501998901367e-01 2.485847920179367065e-01 -1.442791521549224854e-01
-7.000429034233093262e-01 -3.559669852256774902e-02 2.165191620588302612e-01
-8.038445115089416504e-01 9.920470416545867920e-03 2.516567707061767578e-01
-8.435428142547607422e-01 1.543448120355606079e-01 3.023163676261901855e-01
-8.735418319702148438e-02 7.182344794273376465e-02 2.939037978649139404e-01
-6.277616620063781738e-01 3.603818118572235107e-01 1.013333871960639954e-01
-9.557626843452453613e-01 3.350626826286315918e-01 -4.755257070064544678e-02
9.679400920867919922e-02 -7.264041900634765625e-02 -1.858031190931797028e-02
-1.008505582809448242e+00 -9.935274720191955566e-03 -1.074332445859909058e-01
2.924832701683044434e-02 3.145214319229125977e-01 5.892903357744216919e-02
-5.726829767227172852e-01 2.652202844619750977e-01 -2.591903209686279297e-01
-2.225160747766494751e-01 -7.851344347000122070e-02 1.603693068027496338e-01
-3.220130801200866699e-01 2.894446551799774170e-01 2.399730980396270752e-01
-1.280248165130615234e+00 2.162245213985443115e-01 6.809885799884796143e-02
-3.154832720756530762e-01 2.219601273536682129e-01 3.001893162727355957e-01
-4.203149378299713135e-01 1.101394593715667725e-01 -3.142215311527252197e-01
-8.943209052085876465e-01 -2.541738748550415039e-02 -1.392486244440078735e-01
-6.709442138671875000e-01 -2.048122882843017578e-02 -2.142219096422195435e-01
-6.156036257743835449e-02 -1.756413280963897705e-02 2.308486551046371460e-01
-9.847994446754455566e-01 -3.908321261405944824e-02 -2.173323556780815125e-02
-5.438322424888610840e-01 -4.148921370506286621e-02 2.306348234415054321e-01
-9.233918190002441406e-01 -1.502096652984619141e-02 1.810997426509857178e-01
2.011553645133972168e-01 -4.687123000621795654e-02 4.655487835407257080e-02
-6.003597378730773926e-01 3.458228707313537598e-01 1.526114642620086670e-01
-4.374648928642272949e-01 -1.082060486078262329e-01 -8.576540276408195496e-03
4.159269928932189941e-01 1.074753254652023315e-01 -6.757725030183792114e-02
-1.084080219268798828e+00 2.761301398277282715e-02 -1.274662315845489502e-01
-8.672413825988769531e-01 2.018763273954391479e-01 2.864345908164978027e-01
-2.875447273254394531e-01 -4.642665386199951172e-03 2.740977704524993896e-01
1.357838511466979980e-02 1.025487482547760010e-01 -2.732235789299011230e-01
-1.260978698730468750e+00 7.020172476768493652e-02 4.121626168489456177e-02
-7.337334752082824707e-01 3.144962787628173828e-01 -1.835079491138458252e-01
-8.302729129791259766e-01 1.375437527894973755e-01 3.052092194557189941e-01
8.179920911788940430e-02 3.062997460365295410e-01 3.212158381938934326e-02
-1.014584898948669434e+00 6.272923946380615234e-02 -1.993583738803863525e-01
-9.768381714820861816e-01 4.383143037557601929e-02 2.341017872095108032e-01
-1.131379365921020508e+00 4.175434261560440063e-02 -1.156700775027275085e-01
-7.579591274261474609e-01 2.920138239860534668e-01 -2.113611102104187012e-01
6.154447793960571289e-03 3.033486008644104004e-01 1.214839220046997070e-01
-4.592540860176086426e-01 3.616114854812622070e-01 9.657227247953414917e-02
-3.775488138198852539e-01 1.511442065238952637e-01 3.299075365066528320e-01
-1.037086009979248047e+00 6.037220358848571777e-02 2.249006927013397217e-01
-3.143357634544372559e-01 2.549181580543518066e-01 -2.652121484279632568e-01
-1.738067269325256348e-01 2.086631357669830322e-01 2.903698980808258057e-01
-2.527651786804199219e-01 3.586366474628448486e-01 -2.492820285260677338e-02
3.703264594078063965e-01 1.500032842159271240e-01 1.038064658641815186e-01
-2.241955548524856567e-01 -1.056938320398330688e-01 -2.779820002615451813e-02
-4.796351492404937744e-01 1.266960948705673218e-01 -3.145388662815093994e-01
-1.100340962409973145e+00 1.504612118005752563e-01 2.323618084192276001e-01
9.238624572753906250e-02 1.200876832008361816e-01 -2.552337348461151123e-01
-8.684077262878417969e-01 3.032207787036895752e-01 -1.710901409387588501e-01
-8.780372142791748047e-01 1.765998601913452148e-01 2.924289405345916748e-01
3.199422359466552734e-02 2.359338849782943726e-01 -2.196755409240722656e-01
-8.441030383110046387e-01 2.685303092002868652e-01 -2.202633917331695557e-01
2.665805220603942871e-01 2.505049109458923340e-01 -2.247238345444202423e-02
3.042792677879333496e-01 2.227595448493957520e-01 -7.524012029170989990e-02
-1.096272468566894531e+00 2.962089180946350098e-01 1.027961298823356628e-01
-8.815517425537109375e-01 2.665874361991882324e-02 2.484076917171478271e-01
-9.952723979949951172e-01 3.009769320487976074e-01 -1.274448931217193604e-01
1.634860634803771973e-01 1.551130861043930054e-01 -2.273087948560714722e-01
-7.461739778518676758e-01 -4.491746425628662109e-03 2.485186457633972168e-01
-4.318315386772155762e-01 1.181883886456489563e-01 3.329477608203887939e-01
-8.663662075996398926e-01 7.587558031082153320e-02 2.846174836158752441e-01
-2.384599894285202026e-01 -7.424858212471008301e-02 1.723940372467041016e-01
-7.593183517456054688e-01 1.526914089918136597e-01 3.151302933692932129e-01
-3.913778960704803467e-01 1.722574234008789062e-01 3.263080716133117676e-01
1.279948949813842773e-01 -9.728908538818359375e-03 -1.767143607139587402e-01
-1.008572697639465332e+00 3.234998583793640137e-01 8.209098875522613525e-02
-8.159984350204467773e-01 3.471315801143646240e-01 -8.390423655509948730e-02
-1.196350097656250000e+00 2.525792121887207031e-01 -7.851725071668624878e-02
-8.925508856773376465e-01 6.807313859462738037e-02 -2.425403594970703125e-01
5.400103330612182617e-02 2.186583727598190308e-02 -2.308285534381866455e-01
4.173674583435058594e-01 6.024972349405288696e-02 -5.103946663439273834e-03
-1.160359144210815430e+00 6.916078180074691772e-02 1.687315106391906738e-01
-4.854429960250854492e-01 -4.104423522949218750e-02 2.355173826217651367e-01
1.660873293876647949e-01 2.843061685562133789e-01 2.893727459013462067e-02
-2.549424171447753906e-01 3.092684447765350342e-01 -1.928771436214447021e-01
3.153625726699829102e-01 5.222657322883605957e-02 1.428967118263244629e-01
-9.341675043106079102e-01 3.391271829605102539e-01 7.071463018655776978e-02
-6.349000334739685059e-02 2.154335975646972656e-01 2.648505568504333496e-01
-1.508950293064117432e-01 -9.904859960079193115e-02 6.762623786926269531e-02
-4.328588843345642090e-01 3.653997182846069336e-01 7.161087542772293091e-02
9.702062606811523438e-02 2.794917821884155273e-01 1.257019639015197754e-01
1.177678108215332031e-01 2.824053764343261719e-01 -1.047714352607727051e-01
1.131478548049926758e-01 2.300662100315093994e-01 -1.968426853418350220e-01
-9.947090148925781250e-01 1.903006732463836670e-01 2.609453797340393066e-01
-9.606927633285522461e-02 2.380581796169281006e-01 -2.498606443405151367e-01
2.270323038101196289e-01 1.374785155057907104e-01 2.057643681764602661e-01
-2.871351242065429688e-01 -1.079716235399246216e-01 4.368088394403457642e-02
-4.441233575344085693e-01 1.197476685047149658e-01 -3.149375021457672119e-01
-9.136596918106079102e-01 2.410559952259063721e-01 2.544976472854614258e-01
-2.061648964881896973e-01 -6.340840458869934082e-02 1.903348714113235474e-01
3.268514871597290039e-01 3.065362572669982910e-02 1.132477968931198120e-01
-7.997192144393920898e-01 1.169472411274909973e-01 -2.802985012531280518e-01
-9.225952625274658203e-01 2.711645364761352539e-01 -1.974798589944839478e-01
-5.247192382812500000e-01 -5.438156425952911377e-02 -1.863210052251815796e-01
-4.129756987094879150e-01 -4.990860819816589355e-03 -2.570872604846954346e-01
-1.017830848693847656e+00 3.247051239013671875e-01 6.493092328310012817e-02
-6.554256677627563477e-01 4.801079630851745605e-03 -2.448684871196746826e-01
-8.534693717956542969e-01 3.340569138526916504e-01 1.352239102125167847e-01
-6.484950780868530273e-01 8.903124183416366577e-02 3.210460245609283447e-01
2.585664987564086914e-01 9.248143434524536133e-02 -1.932735294103622437e-01
-8.225448131561279297e-01 -1.278628408908843994e-02 2.201645970344543457e-01
-9.379139542579650879e-01 3.150645494461059570e-01 -1.245073527097702026e-01
-1.082095801830291748e-01 -9.906579554080963135e-02 -2.145756222307682037e-02
-6.222786903381347656e-01 3.269366621971130371e-01 -1.764988750219345093e-01
2.413695454597473145e-01 -3.433375060558319092e-02 4.949282854795455933e-02
-8.572345972061157227e-01 -1.163567602634429932e-02 -1.776380836963653564e-01
-5.943024158477783203e-02 -9.152053296566009521e-02 -4.918312281370162964e-02
-7.546193599700927734e-01 3.260431289672851562e-01 1.795479655265808105e-01
-5.149650573730468750e-01 -4.030624032020568848e-02 -2.097205966711044312e-01
-1.110497832298278809e+00 1.849245131015777588e-01 2.224090844392776489e-01
-1.174175620079040527e+00 2.794836759567260742e-01 -3.117915429174900055e-02
